# .PCD v0.7 - Point Cloud Data file format
VERSION 0.7
FIELDS x y z rgb
SIZE 4 4 4 4
TYPE F F F F
COUNT 1 1 1 1
WIDTH 983
HEIGHT 1
VIEWPOINT 0 0 0 1 0 0 0
POINTS 983
DATA ascii
-0.1177408 0.071089007 0.78700006 1.8155671e-38
-0.11685979 0.071089007 0.78700006 1.6773468e-38
-0.11612616 0.071179338 0.78800005 1.5298337e-38
-0.11539029 0.071269669 0.78900003 1.3639548e-38
-0.11479731 0.071450323 0.79100001 1.4100166e-38
-0.16447458 0.071604207 0.78300005 1.0973462e-38
-0.16359806 0.071604207 0.78300005 1.1066018e-38
-0.16184501 0.071604207 0.78300005 1.4658395e-38
-0.16096848 0.071604207 0.78300005 1.5579992e-38
-0.15988751 0.071512766 0.78200006 1.6960753e-38
-0.15901211 0.071512766 0.78200006 1.7790514e-38
-0.1581367 0.071512766 0.78200006 1.9264914e-38
-0.1572613 0.071512766 0.78200006 1.8896133e-38
-0.1561859 0.07142131 0.78100002 2.009323e-38
-0.15511276 0.071329862 0.78000003 2.0277621e-38
-0.15423961 0.071329862 0.78000003 2.0737513e-38
-0.15316981 0.071238413 0.77900004 2.1106296e-38
-0.15229777 0.071238413 0.77900004 2.2119004e-38
-0.15142572 0.071238413 0.77900004 2.22112e-38
-0.15036042 0.071146965 0.77800006 2.257962e-38
-0.14929733 0.071055517 0.77700001 2.2948042e-38
-0.14842753 0.071055517 0.77700001 2.340938e-38
-0.14755774 0.071055517 0.77700001 2.3224989e-38
-0.14668791 0.071055517 0.77700001 2.3500853e-38
-0.14581811 0.071055517 0.77700001 2.3408657e-38
-0.1449483 0.071055517 0.77700001 2.3409015e-38
-0.14389308 0.070964068 0.77600002 2.267145e-38
-0.1430244 0.070964068 0.77600002 2.2301947e-38
-0.14215571 0.070964068 0.77600002 2.2025e-38
-0.14128701 0.070964068 0.77600002 2.1564382e-38
-0.14041832 0.070964068 0.77600002 2.1011208e-38
-0.13954964 0.070964068 0.77600002 2.0826457e-38
-0.13885966 0.071055517 0.77700001 2.0550593e-38
-0.13798986 0.071055517 0.77700001 2.0366562e-38
-0.13712005 0.071055517 0.77700001 2.0366562e-38
-0.13642561 0.071146965 0.77800006 2.0550593e-38
-0.13555469 0.071146965 0.77800006 2.0549874e-38
-0.13451064 0.071055517 0.77700001 2.1010851e-38
-0.13364084 0.071055517 0.77700001 2.1471829e-38
-0.13277103 0.071055517 0.77700001 2.1471829e-38
-0.13190122 0.071055517 0.77700001 2.1471829e-38
-0.13103142 0.071055517 0.77700001 2.1564024e-38
-0.13016161 0.071055517 0.77700001 2.1655141e-38
-0.1292918 0.071055517 0.77700001 2.1378914e-38
-0.12842201 0.071055517 0.77700001 2.1378914e-38
-0.1275522 0.071055517 0.77700001 2.1378914e-38
-0.12684543 0.071146965 0.77800006 2.1194522e-38
-0.12613642 0.071238413 0.77900004 2.1009772e-38
-0.12526439 0.071238413 0.77900004 2.0917219e-38
-0.12455202 0.071329862 0.78000003 2.0917219e-38
-0.12367886 0.071329862 0.78000003 2.0457321e-38
-0.12296314 0.07142131 0.78100002 2.0180734e-38
-0.12224518 0.071512766 0.78200006 1.9720835e-38
-0.12136978 0.071512766 0.78200006 1.9443889e-38
-0.12049437 0.071512766 0.78200006 1.9443889e-38
-0.11977194 0.071604207 0.78300005 1.9536444e-38
-0.11904726 0.071695656 0.78400004 1.9351694e-38
-0.11832034 0.071787104 0.78500003 1.8706324e-38
-0.11759119 0.071878552 0.78600001 1.8245705e-38
-0.11685979 0.071970008 0.78700006 1.7692891e-38
-0.1159788 0.071970008 0.78700006 1.7877642e-38
-0.11524404 0.072061449 0.78800005 1.7602509e-38
-0.11450705 0.072152898 0.78900003 1.5205062e-38
-0.16447458 0.072480731 0.78300005 1.1342244e-38
-0.16338912 0.072388165 0.78200006 1.0789426e-38
-0.16163832 0.072388165 0.78200006 1.3091435e-38
-0.16076291 0.072388165 0.78200006 1.364425e-38
-0.15988751 0.072388165 0.78200006 1.5301962e-38
-0.15901211 0.072388165 0.78200006 1.6224277e-38
-0.1581367 0.072388165 0.78200006 1.7881989e-38
-0.15706019 0.072295591 0.78100002 1.7144424e-38
-0.15598592 0.072203025 0.78000003 1.8525907e-38
-0.15511276 0.072203025 0.78000003 1.9171276e-38
-0.15404186 0.072110459 0.77900004 1.9447498e-38
-0.15316981 0.072110459 0.77900004 2.0369452e-38
-0.15210228 0.072017893 0.77800006 2.1475437e-38
-0.15123133 0.072017893 0.77800006 2.0645318e-38
-0.15036042 0.072017893 0.77800006 2.1289964e-38
-0.14929733 0.07192532 0.77700001 2.1659107e-38
-0.14842753 0.07192532 0.77700001 2.2671815e-38
-0.14755774 0.07192532 0.77700001 2.2764011e-38
-0.14668791 0.07192532 0.77700001 2.3224266e-38
-0.14581811 0.07192532 0.77700001 2.2763288e-38
-0.14476176 0.071832754 0.77600002 2.3039154e-38
-0.14389308 0.071832754 0.77600002 2.3315383e-38
-0.1430244 0.071832754 0.77600002 2.350193e-38
-0.14197251 0.071740188 0.77500004 2.350121e-38
-0.14110495 0.071740188 0.77500004 2.3504091e-38
-0.14023738 0.071740188 0.77500004 2.3505529e-38
-0.13954964 0.071832754 0.77600002 2.3506248e-38
-0.13885966 0.07192532 0.77700001 2.3505888e-38
-0.13798986 0.07192532 0.77700001 2.3504087e-38
-0.13712005 0.07192532 0.77700001 2.3132425e-38
-0.13625024 0.07192532 0.77700001 2.2303023e-38
-0.13538045 0.07192532 0.77700001 2.1381067e-38
-0.13451064 0.07192532 0.77700001 2.0920088e-38
-0.13364084 0.07192532 0.77700001 2.0643499e-38
-0.13277103 0.07192532 0.77700001 2.0643499e-38
-0.13173147 0.071832754 0.77600002 2.0551303e-38
-0.13086279 0.071832754 0.77600002 2.0275076e-38
-0.12999409 0.071832754 0.77600002 2.0458747e-38
-0.12912542 0.071832754 0.77600002 2.0366193e-38
-0.12842201 0.07192532 0.77700001 2.0457667e-38
-0.1275522 0.07192532 0.77700001 2.0457667e-38
-0.12668239 0.07192532 0.77700001 2.0457311e-38
-0.12597451 0.072017893 0.77800006 2.0457311e-38
-0.12526439 0.072110459 0.77900004 2.0364758e-38
-0.12439234 0.072110459 0.77900004 2.0917932e-38
-0.12367886 0.072203025 0.78000003 2.0733545e-38
-0.1228057 0.072203025 0.78000003 2.0364402e-38
-0.12208885 0.072295591 0.78100002 2.0364402e-38
-0.12121457 0.072295591 0.78100002 1.9811228e-38
-0.12049437 0.072388165 0.78200006 1.9719033e-38
-0.11961897 0.072388165 0.78200006 1.9534641e-38
-0.11904726 0.072573297 0.78400004 1.935061e-38
-0.11816961 0.072573297 0.78400004 1.9074019e-38
-0.11744158 0.07266587 0.78500003 1.8889628e-38
-0.11656281 0.07266587 0.78500003 1.8889628e-38
-0.11583143 0.072758436 0.78600001 1.9627193e-38
-0.16513993 0.073263571 0.78200006 1.1342244e-38
-0.16426452 0.073263571 0.78200006 1.143444e-38
-0.16359806 0.073357254 0.78300005 1.1158213e-38
-0.16163832 0.073263571 0.78200006 1.2721946e-38
-0.16076291 0.073263571 0.78200006 1.3552067e-38
-0.15988751 0.073263571 0.78200006 1.4655525e-38
-0.15880875 0.07316988 0.78100002 1.5300894e-38
-0.15793447 0.07316988 0.78100002 1.659126e-38
-0.15685908 0.073076196 0.78000003 1.6406869e-38
-0.15598592 0.073076196 0.78000003 1.6314299e-38
-0.1549139 0.072982505 0.77900004 1.8066015e-38
-0.15404186 0.072982505 0.77900004 1.8156764e-38
-0.15316981 0.072982505 0.77900004 1.8433711e-38
-0.15210228 0.072888821 0.77800006 1.9171632e-38
-0.15123133 0.072888821 0.77800006 1.9079437e-38
-0.15036042 0.072888821 0.77800006 1.9631887e-38
-0.14929733 0.07279513 0.77700001 2.0092867e-38
-0.14842753 0.07279513 0.77700001 2.1382162e-38
-0.14755774 0.07279513 0.77700001 2.0828989e-38
-0.14668791 0.07279513 0.77700001 2.1197408e-38
-0.14581811 0.07279513 0.77700001 2.1565831e-38
-0.14476176 0.072701439 0.77600002 2.2210117e-38
-0.14389308 0.072701439 0.77600002 2.2578541e-38
-0.14284009 0.072607756 0.77500004 2.2762212e-38
-0.14197251 0.072607756 0.77500004 2.3039154e-38
-0.14110495 0.072607756 0.77500004 2.3501214e-38
-0.14023738 0.072607756 0.77500004 2.3504091e-38
-0.13936982 0.072607756 0.77500004 2.3504451e-38
-0.13868095 0.072701439 0.77600002 2.3503007e-38
-0.13781227 0.072701439 0.77600002 2.3505528e-38
-0.13712005 0.07279513 0.77700001 2.3508409e-38
-0.13625024 0.07279513 0.77700001 2.3508769e-38
-0.13538045 0.07279513 0.77700001 2.3509848e-38
-0.13451064 0.07279513 0.77700001 2.3509851e-38
-0.13364084 0.07279513 0.77700001 2.3509846e-38
-0.13277103 0.07279513 0.77700001 2.35084e-38
-0.13173147 0.072701439 0.77600002 2.3505519e-38
-0.13086279 0.072701439 0.77600002 2.3505879e-38
-0.12999409 0.072701439 0.77600002 2.3505521e-38
-0.12912542 0.072701439 0.77600002 2.350444e-38
-0.12842201 0.07279513 0.77700001 2.3502279e-38
-0.1275522 0.07279513 0.77700001 2.3317529e-38
-0.12668239 0.07279513 0.77700001 2.3316452e-38
-0.12597451 0.072888821 0.77800006 2.3132421e-38
-0.12526439 0.072982505 0.77900004 2.2762922e-38
-0.12439234 0.072982505 0.77900004 2.2302303e-38
-0.12352029 0.072982505 0.77900004 2.2300866e-38
-0.1228057 0.073076196 0.78000003 2.2208671e-38
-0.12193253 0.073076196 0.78000003 2.2115756e-38
-0.12105937 0.073076196 0.78000003 2.1931365e-38
-0.12034028 0.07316988 0.78100002 2.2484537e-38
-0.11961897 0.073263571 0.78200006 2.266893e-38
-0.11889542 0.073357254 0.78300005 2.266893e-38
-0.11816961 0.073450945 0.78400004 2.2761126e-38
-0.11729198 0.073450945 0.78400004 2.2761126e-38
-0.11641433 0.073450945 0.78400004 2.2577813e-38
-0.11568405 0.073544629 0.78500003 2.2577813e-38
-0.11495154 0.073638313 0.78600001 2.2025723e-38
-0.16513993 0.074138977 0.78200006 1.1343323e-38
-0.16426452 0.074138977 0.78200006 1.1251128e-38
-0.16338912 0.074138977 0.78200006 9.9578791e-39
-0.16251372 0.074138977 0.78200006 8.0217709e-39
-0.16163832 0.074138977 0.78200006 8.3876878e-39
-0.16076291 0.074138977 0.78200006 9.8624577e-39
-0.15968303 0.074044161 0.78100002 1.2533611e-38
-0.15880875 0.074044161 0.78100002 1.446972e-38
-0.15773225 0.073949359 0.78000003 1.6037026e-38
-0.15685908 0.073949359 0.78000003 1.6406168e-38
-0.15578595 0.073854551 0.77900004 1.6498342e-38
-0.1549139 0.073854551 0.77900004 1.6682734e-38
-0.15384412 0.07375975 0.77800006 1.7142982e-38
-0.15297319 0.07375975 0.77800006 1.760396e-38
-0.15190676 0.073664933 0.77700001 1.788198e-38
-0.15103695 0.073664933 0.77700001 1.8066372e-38
-0.15016714 0.073664933 0.77700001 1.8618821e-38
-0.14929733 0.073664933 0.77700001 1.7789421e-38
-0.14842753 0.073664933 0.77700001 1.8986882e-38
-0.14736782 0.073570132 0.77600002 1.9540056e-38
-0.14649913 0.073570132 0.77600002 1.98152e-38
-0.14563045 0.073570132 0.77600002 2.0276538e-38
-0.14457521 0.073475324 0.77500004 2.0183619e-38
-0.14370765 0.073475324 0.77500004 2.1288168e-38
-0.14284009 0.073475324 0.77500004 2.1841341e-38
-0.14197251 0.073475324 0.77500004 2.1932814e-38
-0.14110495 0.073475324 0.77500004 2.1656587e-38
-0.14023738 0.073475324 0.77500004 2.2762568e-38
-0.13936982 0.073475324 0.77500004 2.3500493e-38
-0.13850224 0.073475324 0.77500004 2.3504812e-38
-0.13781227 0.073570132 0.77600002 2.3508051e-38
-0.13694359 0.073570132 0.77600002 2.3509853e-38
-0.13625024 0.073664933 0.77700001 2.3509855e-38
-0.13538045 0.073664933 0.77700001 2.3509856e-38
-0.13451064 0.073664933 0.77700001 2.3509856e-38
-0.13364084 0.073664933 0.77700001 2.3509856e-38
-0.13277103 0.073664933 0.77700001 2.3509851e-38
-0.13190122 0.073664933 0.77700001 2.350804e-38
-0.13103142 0.073664933 0.77700001 2.350408e-38
-0.13016161 0.073664933 0.77700001 2.350516e-38
-0.1292918 0.073664933 0.77700001 2.3503361e-38
-0.12842201 0.073664933 0.77700001 2.350264e-38
-0.1275522 0.073664933 0.77700001 2.3503e-38
-0.12668239 0.073664933 0.77700001 2.3502644e-38
-0.12597451 0.07375975 0.77800006 2.3501203e-38
-0.12526439 0.073854551 0.77900004 2.3503724e-38
-0.12439234 0.073854551 0.77900004 2.3503004e-38
-0.12352029 0.073854551 0.77900004 2.3038789e-38
-0.1228057 0.073949359 0.78000003 2.3038789e-38
-0.12193253 0.073949359 0.78000003 2.3129905e-38
-0.12105937 0.073949359 0.78000003 2.3129905e-38
-0.12034028 0.074044161 0.78100002 2.2670365e-38
-0.119466 0.074044161 0.78100002 2.2485615e-38
-0.11889542 0.074233778 0.78300005 2.2485615e-38
-0.11801889 0.074233778 0.78300005 2.2577811e-38
-0.11729198 0.074328586 0.78400004 2.2393419e-38
-0.11641433 0.074328586 0.78400004 2.2209028e-38
-0.11568405 0.074423395 0.78500003 2.2024995e-38
-0.11480529 0.074423395 0.78500003 2.101337e-38
-0.16622762 0.075110301 0.78300005 1.1158213e-38
-0.16535111 0.075110301 0.78300005 1.1342244e-38
-0.16426452 0.075014375 0.78200006 1.1341887e-38
-0.16338912 0.075014375 0.78200006 9.0352096e-39
-0.16251372 0.075014375 0.78200006 7.0069057e-39
-0.16163832 0.075014375 0.78200006 7.465028e-39
-0.16076291 0.075014375 0.78200006 7.2806353e-39
-0.15968303 0.074918449 0.78100002 7.4625141e-39
-0.15860543 0.074822523 0.78000003 8.1078835e-39
-0.15773225 0.074822523 0.78000003 1.0042184e-38
-0.15685908 0.074822523 0.78000003 1.1517673e-38
-0.15578595 0.074726596 0.77900004 1.3177532e-38
-0.1549139 0.074726596 0.77900004 1.4928889e-38
-0.15384412 0.07463067 0.77800006 1.5667154e-38
-0.15297319 0.07463067 0.77800006 1.6773862e-38
-0.15190676 0.074534744 0.77700001 1.7603976e-38
-0.15103695 0.074534744 0.77700001 1.8065314e-38
-0.15016714 0.074534744 0.77700001 1.815822e-38
-0.14929733 0.074534744 0.77700001 1.7697242e-38
-0.14842753 0.074534744 0.77700001 1.8066015e-38
-0.14736782 0.074438818 0.77600002 1.7605037e-38
-0.14649913 0.074438818 0.77600002 1.7971654e-38
-0.14563045 0.074438818 0.77600002 1.9262393e-38
-0.14457521 0.074342892 0.77500004 1.8247521e-38
-0.14370765 0.074342892 0.77500004 1.9353145e-38
-0.14284009 0.074342892 0.77500004 1.9722287e-38
-0.14197251 0.074342892 0.77500004 1.9997796e-38
-0.14110495 0.074342892 0.77500004 1.9997796e-38
-0.14023738 0.074342892 0.77500004 2.0458407e-38
-0.13936982 0.074342892 0.77500004 2.0734994e-38
-0.13850224 0.074342892 0.77500004 2.1379997e-38
-0.13781227 0.074438818 0.77600002 2.1472552e-38
-0.13712005 0.074534744 0.77700001 2.2393785e-38
-0.13625024 0.074534744 0.77700001 2.3315383e-38
-0.13538045 0.074534744 0.77700001 2.3040595e-38
-0.13451064 0.074534744 0.77700001 2.3040595e-38
-0.13381284 0.07463067 0.77800006 2.2857283e-38
-0.13294192 0.07463067 0.77800006 2.313387e-38
-0.13207099 0.07463067 0.77800006 2.3502289e-38
-0.13103142 0.074534744 0.77700001 2.3410094e-38
-0.13016161 0.074534744 0.77700001 2.2948392e-38
-0.12945822 0.07463067 0.77800006 2.257961e-38
-0.12858729 0.07463067 0.77800006 2.340937e-38
-0.12771636 0.07463067 0.77800006 2.3224979e-38
-0.12684543 0.07463067 0.77800006 2.2947672e-38
-0.12597451 0.07463067 0.77800006 2.2855118e-38
-0.12526439 0.074726596 0.77900004 2.3039512e-38
-0.12439234 0.074726596 0.77900004 2.2947316e-38
-0.12352029 0.074726596 0.77900004 2.2762565e-38
-0.12264825 0.074726596 0.77900004 2.2670369e-38
-0.12193253 0.074822523 0.78000003 2.2485259e-38
-0.12105937 0.074822523 0.78000003 2.2485259e-38
-0.12018619 0.074822523 0.78000003 2.202464e-38
-0.119466 0.074918449 0.78100002 2.2117195e-38
-0.11874358 0.075014375 0.78200006 2.2025e-38
-0.11801889 0.075110301 0.78300005 2.2118276e-38
-0.11714237 0.075110301 0.78300005 2.1472906e-38
-0.11641433 0.075206228 0.78400004 2.1012647e-38
-0.11568405 0.075302154 0.78500003 2.055167e-38
-0.16622762 0.075986817 0.78300005 1.1342244e-38
-0.16535111 0.075986817 0.78300005 1.1342244e-38
-0.16447458 0.075986817 0.78300005 1.106566e-38
-0.16338912 0.075889774 0.78200006 7.9281501e-39
-0.16251372 0.075889774 0.78200006 7.1905851e-39
-0.16163832 0.075889774 0.78200006 7.5568733e-39
-0.16055731 0.07579273 0.78100002 7.6490689e-39
-0.15968303 0.07579273 0.78100002 7.7412674e-39
-0.15860543 0.075695679 0.78000003 7.9256586e-39
-0.15773225 0.075695679 0.78000003 7.4625239e-39
-0.15685908 0.075695679 0.78000003 6.8171545e-39
-0.15578595 0.075598635 0.77900004 7.7369388e-39
-0.1549139 0.075598635 0.77900004 8.7510907e-39
-0.15384412 0.075501591 0.77800006 9.4897235e-39
-0.15297319 0.075501591 0.77800006 1.0227289e-38
-0.15190676 0.07540454 0.77700001 1.1334348e-38
-0.15103695 0.07540454 0.77700001 1.2901675e-38
-0.15016714 0.07540454 0.77700001 1.5021807e-38
-0.14929733 0.07540454 0.77700001 1.6220351e-38
-0.14842753 0.07540454 0.77700001 1.7143365e-38
-0.14736782 0.075307496 0.77600002 1.7512147e-38
-0.14649913 0.075307496 0.77600002 1.8524483e-38
-0.14563045 0.075307496 0.77600002 1.880071e-38
-0.14457521 0.075210452 0.77500004 1.8800707e-38
-0.14370765 0.075210452 0.77500004 1.889218e-38
-0.14284009 0.075210452 0.77500004 1.9168407e-38
-0.14197251 0.075210452 0.77500004 1.8799981e-38
-0.14110495 0.075210452 0.77500004 1.8799981e-38
-0.14023738 0.075210452 0.77500004 1.916912e-38
-0.13936982 0.075210452 0.77500004 1.916912e-38
-0.13868095 0.075307496 0.77600002 1.9445341e-38
-0.13781227 0.075307496 0.77600002 1.9169114e-38
-0.13712005 0.07540454 0.77700001 1.9168391e-38
-0.13625024 0.07540454 0.77700001 1.9076195e-38
-0.13555469 0.075501591 0.77800006 1.9260943e-38
-0.13468376 0.075501591 0.77800006 1.9537171e-38
-0.13381284 0.075501591 0.77800006 1.9629366e-38
-0.13311279 0.075598635 0.77900004 1.9629366e-38
-0.13207099 0.075501591 0.77800006 1.9721918e-38
-0.13120006 0.075501591 0.77800006 2.0367287e-38
-0.13032913 0.075501591 0.77800006 2.0828622e-38
-0.12945822 0.075501591 0.77800006 2.0828622e-38
-0.12858729 0.075501591 0.77800006 2.0827903e-38
-0.12771636 0.075501591 0.77800006 2.0735707e-38
-0.12684543 0.075501591 0.77800006 2.0366564e-38
-0.12597451 0.075501591 0.77800006 2.1381076e-38
-0.12510359 0.075501591 0.77800006 2.110449e-38
-0.12439234 0.075598635 0.77900004 2.110449e-38
-0.12352029 0.075598635 0.77900004 2.1011934e-38
-0.12264825 0.075598635 0.77900004 2.110449e-38
-0.12177621 0.075598635 0.77900004 2.1565103e-38
-0.12090416 0.075598635 0.77900004 2.0550593e-38
-0.12018619 0.075695679 0.78000003 2.0550593e-38
-0.119466 0.07579273 0.78100002 2.1012291e-38
-0.11874358 0.075889774 0.78200006 2.0090694e-38
-0.11786816 0.075889774 0.78200006 1.9999221e-38
-0.11714237 0.075986817 0.78300005 1.9537883e-38
-0.11641433 0.076083869 0.78400004 1.8801039e-38
-0.11553669 0.076083869 0.78400004 1.8801039e-38
-0.11465904 0.076083869 0.78400004 1.8341149e-38
-0.16731755 0.07696151 0.78400004 1.079015e-38
-0.16622762 0.076863341 0.78300005 1.0789794e-38
-0.16535111 0.076863341 0.78300005 1.0881989e-38
-0.16426452 0.07676518 0.78200006 1.0880912e-38
-0.16338912 0.07676518 0.78200006 8.9430237e-39
-0.16251372 0.07676518 0.78200006 8.2976543e-39
-0.16163832 0.07676518 0.78200006 7.8348965e-39
-0.16055731 0.076667011 0.78100002 7.7427009e-39
-0.15968303 0.076667011 0.78100002 7.5572419e-39
-0.15860543 0.076568849 0.78000003 7.1884593e-39
-0.15773225 0.076568849 0.78000003 6.5416564e-39
-0.15685908 0.076568849 0.78000003 6.3569064e-39
-0.15578595 0.076470681 0.77900004 7.8302302e-39
-0.15471505 0.076372519 0.77800006 9.120969e-39
-0.15384412 0.076372519 0.77800006 8.937291e-39
-0.15277655 0.07627435 0.77700001 8.2919216e-39
-0.15190676 0.07627435 0.77700001 7.4621581e-39
-0.15103695 0.07627435 0.77700001 7.0015387e-39
-0.15016714 0.07627435 0.77700001 7.5525573e-39
-0.14910519 0.076176189 0.77600002 8.4745122e-39
-0.14823651 0.076176189 0.77600002 9.6730372e-39
-0.14736782 0.076176189 0.77600002 1.0318407e-38
-0.14649913 0.076176189 0.77600002 1.188499e-38
-0.14563045 0.076176189 0.77600002 1.2991697e-38
-0.14457521 0.07607802 0.77500004 1.4466818e-38
-0.14370765 0.07607802 0.77500004 1.6403283e-38
-0.14284009 0.07607802 0.77500004 1.7509271e-38
-0.14197251 0.07607802 0.77500004 1.8338311e-38
-0.14110495 0.07607802 0.77500004 1.879893e-38
-0.14023738 0.07607802 0.77500004 1.8985114e-38
-0.13954964 0.076176189 0.77600002 1.9261342e-38
-0.13868095 0.076176189 0.77600002 1.9261335e-38
-0.13798986 0.07627435 0.77700001 1.9261335e-38
-0.13712005 0.07627435 0.77700001 1.9353521e-38
-0.13642561 0.076372519 0.77800006 1.9446077e-38
-0.13555469 0.076372519 0.77800006 1.9722658e-38
-0.13485686 0.076470681 0.77900004 1.9815212e-38
-0.13398483 0.076470681 0.77900004 1.9723014e-38
-0.13311279 0.076470681 0.77900004 1.9446787e-38
-0.13224074 0.076470681 0.77900004 1.9262396e-38
-0.1313687 0.076470681 0.77900004 1.9077644e-38
-0.13049665 0.076470681 0.77900004 1.9262393e-38
-0.12962461 0.076470681 0.77900004 1.9170197e-38
-0.12875257 0.076470681 0.77900004 1.9261673e-38
-0.12788051 0.076470681 0.77900004 1.9169476e-38
-0.12700848 0.076470681 0.77900004 1.8985443e-38
-0.12613642 0.076470681 0.77900004 1.9999594e-38
-0.12526439 0.076470681 0.77900004 1.944642e-38
-0.12439234 0.076470681 0.77900004 1.9169474e-38
-0.12352029 0.076470681 0.77900004 1.9354224e-38
-0.12264825 0.076470681 0.77900004 1.8985443e-38
-0.12177621 0.076470681 0.77900004 1.9262026e-38
-0.12105937 0.076568849 0.78000003 1.8801408e-38
-0.12018619 0.076568849 0.78000003 1.953825e-38
-0.119466 0.076667011 0.78100002 1.9170188e-38
-0.11874358 0.07676518 0.78200006 1.8893959e-38
-0.11786816 0.07676518 0.78200006 1.8802128e-38
-0.11714237 0.076863341 0.78300005 1.8064563e-38
-0.11641433 0.07696151 0.78400004 1.8524828e-38
-0.11553669 0.07696151 0.78400004 1.7971654e-38
-0.16731755 0.077839151 0.78400004 1.0789794e-38
-0.16622762 0.077739865 0.78300005 1.0789794e-38
-0.16535111 0.077739865 0.78300005 1.0881989e-38
-0.16426452 0.077640586 0.78200006 1.0972751e-38
-0.16338912 0.077640586 0.78200006 9.0352194e-39
-0.16251372 0.077640586 0.78200006 8.38985e-39
-0.16143161 0.077541292 0.78100002 8.2969537e-39
-0.16055731 0.077541292 0.78100002 8.5731804e-39
-0.15947857 0.077442013 0.78000003 7.1899027e-39
-0.15860543 0.077442013 0.78000003 6.6367289e-39
-0.15773225 0.077442013 0.78000003 6.727491e-39
-0.15665799 0.077342726 0.77900004 6.5427396e-39
-0.15578595 0.077342726 0.77900004 7.2792214e-39
-0.15471505 0.077243447 0.77800006 8.6621573e-39
-0.15364636 0.077144153 0.77700001 8.3866466e-39
-0.15277655 0.077144153 0.77700001 8.1100583e-39
-0.15190676 0.077144153 0.77700001 7.1877475e-39
-0.15084256 0.077044874 0.77600002 7.0033548e-39
-0.14997388 0.077044874 0.77600002 7.3689045e-39
-0.14910519 0.077044874 0.77600002 6.9079264e-39
-0.14823651 0.077044874 0.77600002 7.64476e-39
-0.14736782 0.077044874 0.77600002 7.9217056e-39
-0.14631034 0.076945588 0.77500004 8.5663365e-39
-0.14563045 0.077044874 0.77600002 8.5663365e-39
-0.14457521 0.076945588 0.77500004 8.9347491e-39
-0.14370765 0.076945588 0.77500004 9.3950084e-39
-0.14284009 0.076945588 0.77500004 9.1184201e-39
-0.14197251 0.076945588 0.77500004 9.3013764e-39
-0.14110495 0.076945588 0.77500004 1.0038941e-38
-0.14023738 0.076945588 0.77500004 1.197505e-38
-0.13954964 0.077044874 0.77600002 1.3081757e-38
-0.13868095 0.077044874 0.77600002 1.4740909e-38
-0.13798986 0.077144153 0.77700001 1.4556878e-38
-0.13729654 0.077243447 0.77800006 1.5847963e-38
-0.13642561 0.077243447 0.77800006 1.6308582e-38
-0.13572893 0.077342726 0.77900004 1.7139412e-38
-0.13485686 0.077342726 0.77900004 1.7784781e-38
-0.13415682 0.077442013 0.78000003 1.8247193e-38
-0.13328366 0.077442013 0.78000003 1.8431584e-38
-0.1324105 0.077442013 0.78000003 1.8708171e-38
-0.13153733 0.077442013 0.78000003 1.8708171e-38
-0.13066417 0.077442013 0.78000003 1.8708527e-38
-0.12962461 0.077342726 0.77900004 1.8892918e-38
-0.12891784 0.077442013 0.78000003 1.9076588e-38
-0.12788051 0.077342726 0.77900004 1.9076588e-38
-0.12700848 0.077342726 0.77900004 1.9169142e-38
-0.12613642 0.077342726 0.77900004 1.9076588e-38
-0.12526439 0.077342726 0.77900004 1.8801077e-38
-0.12439234 0.077342726 0.77900004 1.8708882e-38
-0.12352029 0.077342726 0.77900004 1.8708882e-38
-0.12264825 0.077342726 0.77900004 1.8708882e-38
-0.12177621 0.077342726 0.77900004 1.8709237e-38
-0.12105937 0.077442013 0.78000003 1.8433011e-38
-0.12018619 0.077442013 0.78000003 1.8431932e-38
-0.119466 0.077541292 0.78100002 1.86156e-38
-0.11874358 0.077640586 0.78200006 1.8431209e-38
-0.11801889 0.077739865 0.78300005 1.7970954e-38
-0.11729198 0.077839151 0.78400004 1.7509974e-38
-0.11656281 0.077938437 0.78500003 1.7325586e-38
-0.11568405 0.077938437 0.78500003 1.6587662e-38
-0.1681952 0.078716792 0.78400004 1.0698677e-38
-0.16731755 0.078716792 0.78400004 1.0698677e-38
-0.16643992 0.078716792 0.78400004 1.0698677e-38
-0.16535111 0.078616388 0.78300005 1.0698677e-38
-0.16426452 0.078515992 0.78200006 1.1157144e-38
-0.16338912 0.078515992 0.78200006 9.7727844e-39
-0.16251372 0.078515992 0.78200006 8.8508281e-39
-0.16143161 0.07841558 0.78100002 8.4820624e-39
-0.16035174 0.078315176 0.78000003 8.6668124e-39
-0.15947857 0.078315176 0.78000003 6.4527006e-39
-0.15860543 0.078315176 0.78000003 6.3605049e-39
-0.15753004 0.078214772 0.77900004 6.3590714e-39
-0.15665799 0.078214772 0.77900004 6.5434627e-39
-0.15558596 0.078114368 0.77800006 7.0033646e-39
-0.15471505 0.078114368 0.77800006 7.648734e-39
-0.15364636 0.078013964 0.77700001 8.0196732e-39
-0.15257993 0.07791356 0.77600002 7.5583349e-39
-0.15171126 0.07791356 0.77600002 6.5441857e-39
-0.15084256 0.07791356 0.77600002 6.2675989e-39
-0.14997388 0.07791356 0.77600002 6.3580036e-39
-0.14910519 0.07791356 0.77600002 6.4502007e-39
-0.14823651 0.07791356 0.77600002 7.0019311e-39
-0.14736782 0.07791356 0.77600002 7.3707136e-39
-0.14631034 0.077813156 0.77500004 8.0157075e-39
-0.14563045 0.07791356 0.77600002 8.1082618e-39
-0.14457521 0.077813156 0.77500004 8.3841172e-39
-0.14370765 0.077813156 0.77500004 8.9362106e-39
-0.14284009 0.077813156 0.77500004 7.6454718e-39
-0.14197251 0.077813156 0.77500004 7.0897897e-39
-0.14110495 0.077813156 0.77500004 6.9975941e-39
-0.14023738 0.077813156 0.77500004 7.4564184e-39
-0.13954964 0.07791356 0.77600002 7.9173966e-39
-0.13885966 0.078013964 0.77700001 8.6545945e-39
-0.13798986 0.078013964 0.77700001 8.7467915e-39
-0.13729654 0.078114368 0.77800006 8.7475034e-39
-0.13660096 0.078214772 0.77900004 8.7475034e-39
-0.13572893 0.078214772 0.77900004 9.3939406e-39
-0.13502999 0.078315176 0.78000003 1.003931e-38
-0.13415682 0.078315176 0.78000003 1.0685034e-38
-0.13328366 0.078315176 0.78000003 1.0777588e-38
-0.1324105 0.078315176 0.78000003 1.0777588e-38
-0.13153733 0.078315176 0.78000003 1.1053815e-38
-0.13066417 0.078315176 0.78000003 1.1882497e-38
-0.12979101 0.078315176 0.78000003 1.2436031e-38
-0.12891784 0.078315176 0.78000003 1.2529302e-38
-0.12804468 0.078315176 0.78000003 1.2898445e-38
-0.12717152 0.078315176 0.78000003 1.3268301e-38
-0.12613642 0.078214772 0.77900004 1.3544886e-38
-0.12526439 0.078214772 0.77900004 1.3360855e-38
-0.12439234 0.078214772 0.77900004 1.308391e-38
-0.12352029 0.078214772 0.77900004 1.3084266e-38
-0.12264825 0.078214772 0.77900004 1.3084266e-38
-0.12193253 0.078315176 0.78000003 1.299207e-38
-0.12105937 0.078315176 0.78000003 1.2899874e-38
-0.12034028 0.07841558 0.78100002 1.2622566e-38
-0.11961897 0.078515992 0.78200006 1.2253063e-38
-0.11889542 0.078616388 0.78300005 1.1976475e-38
-0.11801889 0.078616388 0.78300005 1.2067591e-38
-0.11729198 0.078716792 0.78400004 1.1606615e-38
-0.11656281 0.078817196 0.78500003 1.10538e-38
-0.11583143 0.0789176 0.78600001 1.0869048e-38
-0.1142168 0.079018012 0.78700006 1.0226194e-38
-0.11347981 0.079118408 0.78800005 1.0782598e-38
-0.16928849 0.079695962 0.78500003 1.0698677e-38
-0.1681952 0.079594433 0.78400004 1.0513927e-38
-0.16731755 0.079594433 0.78400004 1.0790873e-38
-0.16622762 0.079492912 0.78300005 1.0698677e-38
-0.16535111 0.079492912 0.78300005 1.0790873e-38
-0.16426452 0.07939139 0.78200006 1.0973832e-38
-0.16338912 0.07939139 0.78200006 9.5894707e-39
-0.16230589 0.079289861 0.78100002 9.4050781e-39
-0.16122492 0.079188339 0.78000003 8.575337e-39
-0.16035174 0.079188339 0.78000003 7.837772e-39
-0.15947857 0.079188339 0.78000003 6.1771927e-39
-0.15840209 0.079086818 0.77900004 6.0846383e-39
-0.15753004 0.079086818 0.77900004 5.8062648e-39
-0.15645689 0.078985296 0.77800006 5.990656e-39
-0.15538597 0.078883767 0.77700001 6.17469e-39
-0.15451618 0.078883767 0.77700001 5.7137118e-39
-0.15364636 0.078883767 0.77700001 7.5587034e-39
-0.15257993 0.078782246 0.77600002 7.0977267e-39
-0.15171126 0.078782246 0.77600002 5.992098e-39
-0.15064818 0.078680724 0.77500004 5.992098e-39
-0.14978062 0.078680724 0.77500004 6.0832174e-39
-0.14891304 0.078680724 0.77500004 6.0832174e-39
-0.14804548 0.078680724 0.77500004 5.9906616e-39
-0.14717792 0.078680724 0.77500004 5.9906616e-39
-0.14631034 0.078680724 0.77500004 6.8186174e-39
-0.14544278 0.078680724 0.77500004 7.5561825e-39
-0.14457521 0.078680724 0.77500004 7.8338358e-39
-0.14370765 0.078680724 0.77500004 9.4915578e-39
-0.14284009 0.078680724 0.77500004 7.0022758e-39
-0.14197251 0.078680724 0.77500004 7.1834399e-39
-0.14110495 0.078680724 0.77500004 7.1834399e-39
-0.14023738 0.078680724 0.77500004 7.9184924e-39
-0.13954964 0.078782246 0.77600002 8.1028837e-39
-0.13885966 0.078883767 0.77700001 8.2876322e-39
-0.13798986 0.078883767 0.77700001 8.563859e-39
-0.13729654 0.078985296 0.77800006 8.6564106e-39
-0.13660096 0.079086818 0.77900004 8.6564106e-39
-0.13572893 0.079086818 0.77900004 9.2113752e-39
-0.13502999 0.079188339 0.78000003 9.2113752e-39
-0.13415682 0.079188339 0.78000003 8.6578371e-39
-0.13345455 0.079289861 0.78100002 8.0124677e-39
-0.13258025 0.079289861 0.78100002 7.642609e-39
-0.13153733 0.079188339 0.78000003 7.2734663e-39
-0.13066417 0.079188339 0.78000003 7.1801959e-39
-0.12979101 0.079188339 0.78000003 7.548977e-39
-0.12891784 0.079188339 0.78000003 7.6426062e-39
-0.12804468 0.079188339 0.78000003 8.2879756e-39
-0.12717152 0.079188339 0.78000003 8.1057409e-39
-0.12629835 0.079188339 0.78000003 7.9213496e-39
-0.12542519 0.079188339 0.78000003 7.5536433e-39
-0.12455202 0.079188339 0.78000003 7.5536433e-39
-0.12367886 0.079188339 0.78000003 7.4607274e-39
-0.1228057 0.079188339 0.78000003 7.2763362e-39
-0.12193253 0.079188339 0.78000003 7.0901456e-39
-0.12121457 0.079289861 0.78100002 6.99795e-39
-0.12049437 0.07939139 0.78200006 7.2738166e-39
-0.11961897 0.07939139 0.78200006 7.734792e-39
-0.11889542 0.079492912 0.78300005 7.826989e-39
-0.11816961 0.079594433 0.78400004 8.3794383e-39
-0.11744158 0.079695962 0.78500003 8.3794383e-39
-0.1167113 0.079797484 0.78600001 8.657086e-39
-0.1159788 0.079899013 0.78700006 9.1180641e-39
-0.11509779 0.079899013 0.78700006 9.3964433e-39
-0.11436193 0.080000535 0.78800005 9.3964433e-39
-0.11362382 0.080102056 0.78900003 1.0413822e-38
-0.17038403 0.08067736 0.78600001 1.0513927e-38
-0.16928849 0.080574721 0.78500003 1.0606123e-38
-0.1681952 0.080472082 0.78400004 1.0513927e-38
-0.16731755 0.080472082 0.78400004 1.0513927e-38
-0.16643992 0.080472082 0.78400004 1.0606123e-38
-0.16535111 0.080369435 0.78300005 1.0513927e-38
-0.16426452 0.080266796 0.78200006 1.051357e-38
-0.16318017 0.080164149 0.78100002 9.9586092e-39
-0.16230589 0.080164149 0.78100002 9.497631e-39
-0.16122492 0.08006151 0.78000003 8.8519239e-39
-0.16014616 0.079958864 0.77900004 7.9299676e-39
-0.15927413 0.079958864 0.77900004 6.7300105e-39
-0.15840209 0.079958864 0.77900004 6.0846411e-39
-0.15732782 0.079856224 0.77800006 5.6225952e-39
-0.15645689 0.079856224 0.77800006 5.6225952e-39
-0.15538597 0.079753578 0.77700001 5.7144349e-39
-0.15451618 0.079753578 0.77700001 5.0690655e-39
-0.15344863 0.079650931 0.77600002 4.6098866e-39
-0.15257993 0.079650931 0.77600002 5.808071e-39
-0.15171126 0.079650931 0.77600002 6.1772123e-39
-0.15064818 0.079548292 0.77500004 6.3612448e-39
-0.14978062 0.079548292 0.77500004 6.3608875e-39
-0.14891304 0.079548292 0.77500004 5.8080724e-39
-0.14804548 0.079548292 0.77500004 5.9906644e-39
-0.14717792 0.079548292 0.77500004 5.6218819e-39
-0.14631034 0.079548292 0.77500004 5.8055515e-39
-0.14544278 0.079548292 0.77500004 6.1743326e-39
-0.14457521 0.079548292 0.77500004 6.9129655e-39
-0.14370765 0.079548292 0.77500004 7.9260412e-39
-0.14265577 0.079445653 0.77400005 6.0824873e-39
-0.14178933 0.079445653 0.77400005 6.3554855e-39
-0.14092289 0.079445653 0.77400005 6.6320724e-39
-0.14023738 0.079548292 0.77500004 7.4600338e-39
-0.13954964 0.079650931 0.77600002 7.9210105e-39
-0.13885966 0.079753578 0.77700001 8.1965198e-39
-0.13798986 0.079753578 0.77700001 8.1965198e-39
-0.13729654 0.079856224 0.77800006 8.1965198e-39
-0.13660096 0.079958864 0.77900004 8.3812698e-39
-0.13590315 0.08006151 0.78000003 8.6589329e-39
-0.13502999 0.08006151 0.78000003 8.7511285e-39
-0.13432881 0.080164149 0.78100002 9.2106647e-39
-0.13345455 0.080164149 0.78100002 8.2883483e-39
-0.13258025 0.080164149 0.78100002 8.5631387e-39
-0.13170597 0.080164149 0.78100002 8.2865518e-39
-0.13083167 0.080164149 0.78100002 8.1018047e-39
-0.12995741 0.080164149 0.78100002 7.917412e-39
-0.12908313 0.080164149 0.78100002 7.8266499e-39
-0.12820883 0.080164149 0.78100002 8.2879882e-39
-0.12717152 0.08006151 0.78000003 8.2897846e-39
-0.12629835 0.08006151 0.78000003 8.197589e-39
-0.12542519 0.08006151 0.78000003 7.7376899e-39
-0.12455202 0.08006151 0.78000003 8.1061136e-39
-0.12367886 0.08006151 0.78000003 7.7376899e-39
-0.1228057 0.08006151 0.78000003 7.0923205e-39
-0.12208885 0.080164149 0.78100002 6.7217387e-39
-0.12136978 0.080266796 0.78200006 6.629543e-39
-0.12049437 0.080266796 0.78200006 7.0897981e-39
-0.11977194 0.080369435 0.78300005 7.366385e-39
-0.11904726 0.080472082 0.78400004 8.5642051e-39
-0.11832034 0.080574721 0.78500003 8.5649128e-39
-0.11759119 0.08067736 0.78600001 8.2879658e-39
-0.1167113 0.08067736 0.78600001 1.0226211e-38
-0.1159788 0.080780007 0.78700006 1.0963776e-38
-0.11524404 0.080882654 0.78800005 1.1057405e-38
-0.11450705 0.080985293 0.78900003 1.0043253e-38
-0.11362382 0.080985293 0.78900003 9.8620948e-39
-0.17038403 0.081557237 0.78600001 1.0606123e-38
-0.16928849 0.08145348 0.78500003 1.0790873e-38
-0.1681952 0.081349716 0.78400004 1.0790873e-38
-0.16731755 0.081349716 0.78400004 1.0513927e-38
-0.16622762 0.081245959 0.78300005 1.0513927e-38
-0.16535111 0.081245959 0.78300005 1.0606123e-38
-0.16426452 0.081142195 0.78200006 1.0606125e-38
-0.16318017 0.08103843 0.78100002 9.9593295e-39
-0.16209807 0.080934666 0.78000003 9.3139601e-39
-0.16122492 0.080934666 0.78000003 8.6675355e-39
-0.16014616 0.080830902 0.77900004 7.6530234e-39
-0.15927413 0.080830902 0.77900004 6.7300105e-39
-0.15819874 0.080727145 0.77800006 6.1768368e-39
-0.15732782 0.080727145 0.77800006 5.5307639e-39
-0.15625578 0.080623373 0.77700001 5.3463726e-39
-0.15538597 0.080623373 0.77700001 5.7155139e-39
-0.15451618 0.080623373 0.77700001 6.7293071e-39
-0.15344863 0.080519617 0.77600002 8.1140394e-39
-0.15257993 0.080519617 0.77600002 6.4545195e-39
-0.15151575 0.080415852 0.77500004 6.1775752e-39
-0.15064818 0.080415852 0.77500004 5.9013485e-39
-0.14978062 0.080415852 0.77500004 5.8087941e-39
-0.14891304 0.080415852 0.77500004 5.7165971e-39
-0.14804548 0.080415852 0.77500004 5.4392913e-39
-0.14717792 0.080415852 0.77500004 5.0705074e-39
-0.14631034 0.080415852 0.77500004 5.4374907e-39
-0.14544278 0.080415852 0.77500004 5.714079e-39
-0.14438866 0.080312096 0.77400005 6.4523573e-39
-0.14352222 0.080312096 0.77400005 6.2679646e-39
-0.14265577 0.080312096 0.77400005 5.7147908e-39
-0.14178933 0.080312096 0.77400005 5.2516575e-39
-0.14110495 0.080415852 0.77500004 6.1736138e-39
-0.14023738 0.080415852 0.77500004 7.3703563e-39
-0.13954964 0.080519617 0.77600002 7.4625533e-39
-0.13885966 0.080623373 0.77700001 7.6462243e-39
-0.13816746 0.080727145 0.77800006 7.3696374e-39
-0.13747302 0.080830902 0.77900004 7.3692815e-39
-0.13660096 0.080830902 0.77900004 7.645867e-39
-0.13590315 0.080934666 0.78000003 7.8306156e-39
-0.13520309 0.08103843 0.78100002 8.0150068e-39
-0.13432881 0.08103843 0.78100002 8.8429682e-39
-0.13345455 0.08103843 0.78100002 7.7366207e-39
-0.13258025 0.08103843 0.78100002 8.1025263e-39
-0.13170597 0.08103843 0.78100002 8.1025263e-39
-0.13066417 0.080934666 0.78000003 8.010688e-39
-0.12979101 0.080934666 0.78000003 8.1950793e-39
-0.12908313 0.08103843 0.78100002 8.3801908e-39
-0.12820883 0.08103843 0.78100002 8.3801908e-39
-0.12717152 0.080934666 0.78000003 7.9210105e-39
-0.12629835 0.080934666 0.78000003 7.644425e-39
-0.12542519 0.080934666 0.78000003 7.2774418e-39
-0.12455202 0.080934666 0.78000003 7.2774418e-39
-0.12367886 0.080934666 0.78000003 7.1852462e-39
-0.1228057 0.080934666 0.78000003 6.9082991e-39
-0.12208885 0.08103843 0.78100002 6.8150203e-39
-0.12136978 0.081142195 0.78200006 6.7228247e-39
-0.12049437 0.081142195 0.78200006 7.0908855e-39
-0.1199249 0.081349716 0.78400004 7.0908855e-39
-0.1191991 0.08145348 0.78500003 7.6429789e-39
-0.11832034 0.08145348 0.78500003 7.2756131e-39
-0.1177408 0.081661008 0.78700006 9.7648951e-39
-0.11700828 0.081764765 0.78800005 1.151767e-38
-0.11612616 0.081764765 0.78800005 1.0780105e-38
-0.11539029 0.081868529 0.78900003 1.0321637e-38
-0.11450705 0.081868529 0.78900003 1.004541e-38
-0.11376783 0.081972286 0.79000002 1.0415269e-38
-0.17016725 0.082332239 0.78500003 1.0974548e-38
-0.16907284 0.082227357 0.78400004 1.1066743e-38
-0.1681952 0.082227357 0.78400004 1.0974548e-38
-0.16710414 0.082122482 0.78300005 1.0698321e-38
-0.16622762 0.082122482 0.78300005 1.0606123e-38
-0.16513993 0.082017601 0.78200006 1.0698677e-38
-0.16405445 0.081912711 0.78100002 1.0698321e-38
-0.16297124 0.081807829 0.78000003 9.8667765e-39
-0.16209807 0.081807829 0.78000003 9.3139629e-39
-0.16101822 0.081702948 0.77900004 8.4835085e-39
-0.16014616 0.081702948 0.77900004 7.4693552e-39
-0.15906967 0.081598073 0.77800006 6.3619511e-39
-0.15819874 0.081598073 0.77800006 6.0850041e-39
-0.15712559 0.081493184 0.77700001 5.8995464e-39
-0.15625578 0.081493184 0.77700001 5.8995464e-39
-0.15538597 0.081493184 0.77700001 6.3612448e-39
-0.1543173 0.081388302 0.77600002 6.8225817e-39
-0.15344863 0.081388302 0.77600002 6.2701282e-39
-0.15257993 0.081388302 0.77600002 5.9013457e-39
-0.15151575 0.08128342 0.77500004 5.9013485e-39
-0.15064818 0.08128342 0.77500004 6.2697709e-39
-0.14978062 0.08128342 0.77500004 6.2697709e-39
-0.14891304 0.08128342 0.77500004 5.9935441e-39
-0.14804548 0.08128342 0.77500004 5.8080724e-39
-0.14717792 0.08128342 0.77500004 5.2548987e-39
-0.14631034 0.08128342 0.77500004 5.2534637e-39
-0.14544278 0.08128342 0.77500004 5.1612681e-39
-0.14457521 0.08128342 0.77500004 5.2538197e-39
-0.14370765 0.08128342 0.77500004 5.6233183e-39
-0.14265577 0.081178539 0.77400005 5.991742e-39
-0.14178933 0.081178539 0.77400005 6.7285868e-39
-0.14110495 0.08128342 0.77500004 6.8207824e-39
-0.14023738 0.08128342 0.77500004 7.1877657e-39
-0.13954964 0.081388302 0.77600002 7.7409395e-39
-0.13885966 0.081493184 0.77700001 7.5558279e-39
-0.13816746 0.081598073 0.77800006 6.7260673e-39
-0.13747302 0.081702948 0.77900004 6.5413159e-39
-0.13660096 0.081702948 0.77900004 6.8182629e-39
-0.13590315 0.081807829 0.78000003 7.1863252e-39
-0.13502999 0.081807829 0.78000003 7.5547489e-39
-0.13415682 0.081807829 0.78000003 8.3841453e-39
-0.13328366 0.081807829 0.78000003 7.0934065e-39
-0.1324105 0.081807829 0.78000003 6.9994116e-39
-0.13153733 0.081807829 0.78000003 7.5525853e-39
-0.13066417 0.081807829 0.78000003 8.5660184e-39
-0.12979101 0.081807829 0.78000003 8.4738214e-39
-0.12891784 0.081807829 0.78000003 8.4738214e-39
-0.12804468 0.081807829 0.78000003 8.1046801e-39
-0.12717152 0.081807829 0.78000003 7.644781e-39
-0.12629835 0.081807829 0.78000003 7.644781e-39
-0.12542519 0.081807829 0.78000003 7.3696374e-39
-0.12455202 0.081807829 0.78000003 7.5536685e-39
-0.12367886 0.081807829 0.78000003 7.1863252e-39
-0.1228057 0.081807829 0.78000003 6.4484014e-39
-0.12208885 0.081912711 0.78100002 6.5402327e-39
-0.12136978 0.082017601 0.78200006 6.7246253e-39
-0.12064845 0.082122482 0.78300005 7.184879e-39
-0.1199249 0.082227357 0.78400004 6.8160979e-39
-0.1191991 0.082332239 0.78500003 6.9079292e-39
-0.11847106 0.08243712 0.78600001 7.2774138e-39
-0.1177408 0.08254201 0.78700006 1.114963e-38
-0.11700828 0.082646884 0.78800005 1.1058491e-38
-0.11627353 0.082751766 0.78900003 1.0690069e-38
-0.11539029 0.082751766 0.78900003 1.0506387e-38
-0.11465218 0.082856648 0.79000002 9.5840715e-39
-0.11391184 0.082961529 0.79100001 1.0600736e-38
-0.17016725 0.083211005 0.78500003 1.0883431e-38
-0.16928849 0.083211005 0.78500003 1.0791236e-38
-0.1681952 0.083105005 0.78400004 1.0607202e-38
-0.16710414 0.082998998 0.78300005 1.0607202e-38
-0.16601533 0.082892999 0.78200006 1.0607202e-38
-0.16513993 0.082892999 0.78200006 1.0791233e-38
-0.16384441 0.082680993 0.78000003 9.960756e-39
-0.16297124 0.082680993 0.78000003 8.7604317e-39
-0.16189025 0.082574993 0.77900004 9.4979982e-39
-0.16101822 0.082574993 0.77900004 8.4835142e-39
-0.15994059 0.082468994 0.77800006 6.6396016e-39
-0.1588652 0.082362987 0.77700001 6.2693981e-39
-0.1579954 0.082362987 0.77700001 5.9928112e-39
-0.15712559 0.082362987 0.77700001 5.992821e-39
-0.15605469 0.082256988 0.77600002 5.9006254e-39
-0.155186 0.082256988 0.77600002 5.531487e-39
-0.1543173 0.082256988 0.77600002 5.9002681e-39
-0.15344863 0.082256988 0.77600002 5.9013485e-39
-0.15238331 0.082150988 0.77500004 5.8087941e-39
-0.15151575 0.082150988 0.77500004 5.9013485e-39
-0.15064818 0.082150988 0.77500004 6.1775752e-39
-0.14978062 0.082150988 0.77500004 6.1775752e-39
-0.14891304 0.082150988 0.77500004 5.9935441e-39
-0.14804548 0.082150988 0.77500004 5.8077165e-39
-0.14717792 0.082150988 0.77500004 4.8861204e-39
-0.14631034 0.082150988 0.77500004 4.701369e-39
-0.14544278 0.082150988 0.77500004 4.8861204e-39
-0.14457521 0.082150988 0.77500004 5.255256e-39
-0.14370765 0.082150988 0.77500004 5.5307639e-39
-0.14284009 0.082150988 0.77500004 5.6233183e-39
-0.14197251 0.082150988 0.77500004 5.991742e-39
-0.14110495 0.082150988 0.77500004 6.2686877e-39
-0.14041832 0.082256988 0.77600002 6.9118991e-39
-0.13972947 0.082362987 0.77700001 7.1888447e-39
-0.13903838 0.082468994 0.77800006 1.0046188e-38
-0.13834505 0.082574993 0.77900004 9.4008181e-39
-0.13747302 0.082574993 0.77900004 7.7420059e-39
-0.13660096 0.082574993 0.77900004 6.6356583e-39
-0.13590315 0.082680993 0.78000003 6.5434627e-39
-0.13502999 0.082680993 0.78000003 6.7278553e-39
-0.13415682 0.082680993 0.78000003 7.9256769e-39
-0.13328366 0.082680993 0.78000003 7.8331225e-39
-0.1324105 0.082680993 0.78000003 8.2937391e-39
-0.1313687 0.082574993 0.77900004 8.7543585e-39
-0.13049665 0.082574993 0.77900004 7.9242349e-39
-0.12962461 0.082574993 0.77900004 7.9242349e-39
-0.12875257 0.082574993 0.77900004 7.5536531e-39
-0.12788051 0.082574993 0.77900004 7.0004793e-39
-0.12700848 0.082574993 0.77900004 6.8160881e-39
-0.12613642 0.082574993 0.77900004 6.9082837e-39
-0.12526439 0.082574993 0.77900004 6.7246141e-39
-0.12455202 0.082680993 0.78000003 6.5398641e-39
-0.12367886 0.082680993 0.78000003 5.9877708e-39
-0.12296314 0.082787 0.78100002 5.8033781e-39
-0.12224518 0.082892999 0.78200006 6.2643562e-39
-0.12136978 0.082892999 0.78200006 7.7394863e-39
-0.12080254 0.083105005 0.78400004 7.7394863e-39
-0.12007786 0.083211005 0.78500003 6.0803251e-39
-0.1191991 0.083211005 0.78500003 6.5402215e-39
-0.1186218 0.083423011 0.78700006 6.6324171e-39
-0.11789041 0.08352901 0.78800005 1.0504974e-38
-0.11715677 0.08363501 0.78900003 9.0312663e-39
-0.1164209 0.083741009 0.79000002 1.170494e-38
-0.11568278 0.083847009 0.79100001 1.0138324e-38
-0.11479731 0.083847009 0.79100001 8.571e-39
-0.11391184 0.083847009 0.79100001 1.1246105e-38
-0.17016725 0.084089763 0.78500003 1.0791236e-38
-0.16907284 0.083982646 0.78400004 1.0883431e-38
-0.16798067 0.083875522 0.78300005 1.0975627e-38
-0.16710414 0.083875522 0.78300005 1.0975627e-38
-0.16601533 0.083768405 0.78200006 1.0975984e-38
-0.16492875 0.083661281 0.78100002 1.0791233e-38
-0.16384441 0.083554164 0.78000003 9.4075822e-39
-0.16276231 0.083447039 0.77900004 7.1005517e-39
-0.16189025 0.083447039 0.77900004 7.008356e-39
-0.16081151 0.083339922 0.77800006 6.547043e-39
-0.15973499 0.083232798 0.77700001 5.9935091e-39
-0.1588652 0.083232798 0.77700001 6.2690324e-39
-0.1579954 0.083232798 0.77700001 5.9920854e-39
-0.15692337 0.083125681 0.77600002 5.9917322e-39
-0.15605469 0.083125681 0.77600002 5.9917322e-39
-0.155186 0.083125681 0.77600002 5.2548889e-39
-0.15411845 0.083018556 0.77500004 5.5314772e-39
-0.15325089 0.083018556 0.77500004 7.5594265e-39
-0.15238331 0.083018556 0.77500004 6.2686877e-39
-0.15151575 0.083018556 0.77500004 5.8087941e-39
-0.15064818 0.083018556 0.77500004 5.7165971e-39
-0.14978062 0.083018556 0.77500004 5.7162412e-39
-0.14891304 0.083018556 0.77500004 5.7162412e-39
-0.14804548 0.083018556 0.77500004 5.7162412e-39
-0.14717792 0.083018556 0.77500004 4.8864805e-39
-0.14631034 0.083018556 0.77500004 5.1623471e-39
-0.14544278 0.083018556 0.77500004 5.438934e-39
-0.14457521 0.083018556 0.77500004 5.9924651e-39
-0.14370765 0.083018556 0.77500004 5.4392913e-39
-0.14284009 0.083018556 0.77500004 5.3470957e-39
-0.14197251 0.083018556 0.77500004 5.5307667e-39
-0.14110495 0.083018556 0.77500004 5.9913847e-39
-0.14041832 0.083125681 0.77600002 6.3598043e-39
-0.13972947 0.083232798 0.77700001 5.7144349e-39
-0.13903838 0.083339922 0.77800006 1.0784109e-38
-0.13834505 0.083447039 0.77900004 1.1613509e-38
-0.13747302 0.083447039 0.77900004 1.1153957e-38
-0.13660096 0.083447039 0.77900004 1.0600784e-38
-0.13590315 0.083554164 0.78000003 1.1246153e-38
-0.13502999 0.083554164 0.78000003 1.1246153e-38
-0.13415682 0.083554164 0.78000003 1.0324194e-38
-0.13328366 0.083554164 0.78000003 1.0140163e-38
-0.13224074 0.083447039 0.77900004 1.0508945e-38
-0.1313687 0.083447039 0.77900004 1.041639e-38
-0.13032913 0.083339922 0.77800006 1.0139084e-38
-0.12945822 0.083339922 0.77800006 1.0507865e-38
-0.12875257 0.083447039 0.77900004 1.0598977e-38
-0.12788051 0.083447039 0.77900004 9.953608e-39
-0.12700848 0.083447039 0.77900004 1.0045438e-38
-0.12613642 0.083447039 0.77900004 1.0598612e-38
-0.12526439 0.083447039 0.77900004 9.9532422e-39
-0.12439234 0.083447039 0.77900004 9.3078728e-39
-0.12367886 0.083554164 0.78000003 9.0316489e-39
-0.12296314 0.083661281 0.78100002 8.6632265e-39
-0.12224518 0.083768405 0.78200006 8.6628691e-39
-0.12152498 0.083875522 0.78300005 9.3082386e-39
-0.12080254 0.083982646 0.78400004 9.4922711e-39
-0.12007786 0.084089763 0.78500003 8.9390973e-39
-0.11935095 0.08419688 0.78600001 8.6628691e-39
-0.1186218 0.084304012 0.78700006 7.0951847e-39
-0.11804001 0.084518246 0.78900003 9.0309202e-39
-0.11730525 0.084625371 0.79000002 8.3858969e-39
-0.11656827 0.084732488 0.79100001 1.0782625e-38
-0.11568278 0.084732488 0.79100001 9.5851505e-39
-0.11494245 0.084839612 0.79200006 9.0319768e-39
-0.11419986 0.084946729 0.79300004 1.1431933e-38
-0.17016725 0.08496853 0.78500003 1.0883431e-38
-0.16907284 0.084860288 0.78400004 1.1160019e-38
-0.16798067 0.084752046 0.78300005 1.1160019e-38
-0.16689073 0.084643811 0.78200006 1.1067824e-38
-0.16601533 0.084643811 0.78200006 1.088343e-38
-0.16492875 0.084535562 0.78100002 1.0791233e-38
-0.16384441 0.084427327 0.78000003 8.6700172e-39
-0.16276231 0.084319085 0.77900004 7.0094252e-39
-0.16168244 0.08421085 0.77800006 6.0874689e-39
-0.1606048 0.084102601 0.77700001 5.5332344e-39
-0.15973499 0.084102601 0.77700001 5.3492033e-39
-0.1588652 0.084102601 0.77700001 5.0719129e-39
-0.15779206 0.083994366 0.77600002 4.9797173e-39
-0.15692337 0.083994366 0.77600002 5.3463446e-39
-0.15605469 0.083994366 0.77600002 5.3463446e-39
-0.15498601 0.083886124 0.77500004 5.438899e-39
-0.15411845 0.083886124 0.77500004 7.0980602e-39
-0.15325089 0.083886124 0.77500004 9.5866415e-39
-0.15238331 0.083886124 0.77500004 6.1750445e-39
-0.15151575 0.083886124 0.77500004 5.7162313e-39
-0.15064818 0.083886124 0.77500004 5.4400046e-39
-0.14978062 0.083886124 0.77500004 5.1634247e-39
-0.14891304 0.083886124 0.77500004 5.1634247e-39
-0.14804548 0.083886124 0.77500004 5.2559791e-39
-0.14717792 0.083886124 0.77500004 5.2559791e-39
-0.14631034 0.083886124 0.77500004 5.8080724e-39
-0.14544278 0.083886124 0.77500004 5.531487e-39
-0.14457521 0.083886124 0.77500004 5.7155181e-39
-0.14370765 0.083886124 0.77500004 5.8080724e-39
-0.14284009 0.083886124 0.77500004 5.531487e-39
-0.14197251 0.083886124 0.77500004 5.2548987e-39
-0.14128701 0.083994366 0.77600002 5.3470957e-39
-0.14059928 0.084102601 0.77700001 6.175413e-39
-0.13990931 0.08421085 0.77800006 6.175413e-39
-0.13921709 0.084319085 0.77900004 8.6632517e-39
-0.13834505 0.084319085 0.77900004 9.9539905e-39
-0.13747302 0.084319085 0.77900004 1.0416036e-38
-0.13677631 0.084427327 0.78000003 1.0508232e-38
-0.13590315 0.084427327 0.78000003 1.1061762e-38
-0.13502999 0.084427327 0.78000003 1.1430546e-38
-0.13415682 0.084427327 0.78000003 1.1338706e-38
-0.13311279 0.084319085 0.77900004 1.1614933e-38
-0.13224074 0.084319085 0.77900004 1.1984075e-38
-0.13120006 0.08421085 0.77800006 1.2260302e-38
-0.13032913 0.08421085 0.77800006 1.2352498e-38
-0.1292918 0.084102601 0.77700001 1.2352498e-38
-0.12858729 0.08421085 0.77800006 1.2536169e-38
-0.12771636 0.08421085 0.77800006 1.2536169e-38
-0.12684543 0.08421085 0.77800006 1.2811314e-38
-0.12597451 0.08421085 0.77800006 1.2627281e-38
